-13.33869 4.04620 -0.64429
-13.36233 4.05112 -0.59899
-13.27257 4.03161 -0.74579
-13.32234 4.03351 -0.76439
-13.51067 4.34123 0.41802
-13.50412 4.35125 0.47809
-13.50637 4.27209 0.16468
-12.08546 -1.67362 4.15792
-12.08790 -1.71609 4.19126
-12.12143 -1.62385 4.15409
-13.52192 4.36027 0.57457
-13.54662 4.34628 0.48496
-11.39254 -2.86632 -0.37769
-11.36818 -2.86787 -0.43436
-11.39886 -2.85873 -0.42759
-13.28502 2.54589 4.24096
-13.34983 2.56171 4.24963
-13.35872 2.60879 4.24357
-11.47455 -3.19094 0.73347
-12.91219 1.13591 3.91935
-12.91424 1.22836 3.92798
-12.92215 1.17298 3.92932
-12.21255 -1.02741 3.70266
-12.17674 -1.01461 3.62428
-13.45098 3.25783 3.79647
-13.43946 3.28440 3.76173
-11.84072 -2.34519 3.89535
-11.81052 -2.36906 3.84245
-11.85401 -2.38350 3.85053
-11.82403 -2.40295 3.79831
-13.26469 4.05769 -0.53868
-11.52299 -3.17035 0.61836
-11.49793 -3.18134 0.67471
-11.40405 -3.20114 1.06943
-11.44465 -3.17967 1.18132
-11.46555 -3.18738 1.12684
-13.26374 4.22795 -2.69837
-13.48262 4.32131 0.31187
-13.50765 4.33229 0.36946
-12.32092 -0.68913 3.73950
-12.29781 -0.71884 3.70699
-11.48198 -3.16795 0.57185
-11.46962 -3.14829 0.47294
-11.42550 -3.14173 0.42443
-11.51051 -3.15397 0.52037
-11.22989 -3.17460 -1.40789
-11.27878 -3.20067 -1.43924
-11.30220 -3.15341 -1.39393
-11.26028 -3.12857 -1.35959
-13.33776 4.05689 -0.54547
-13.23462 2.52907 4.23138
-11.75972 -2.69792 2.99018
-11.66269 -2.76414 2.77620
-11.83159 -2.76024 2.86979
-11.42667 -3.11720 0.34624
-11.53489 -3.08708 0.30827
-11.76239 -2.47583 3.60279
-11.79877 -2.45489 3.67822
-11.80946 -2.49395 3.59036
-11.85148 -2.46760 3.68349
-11.64444 -2.95431 2.14792
-13.37723 2.69725 4.22371
-13.29168 2.70798 4.21270
-13.32039 2.73640 4.20628
-13.25861 4.37431 -3.10499
-13.29436 4.38588 -3.16153
-13.22936 4.30943 -2.88232
-13.24478 4.39759 -3.21179
-13.43139 4.07771 -0.38270
-13.44059 4.06793 -0.43966
-13.40445 4.05931 -0.51821
-12.12639 -1.33981 3.86266
-12.29262 -1.36209 4.12495
-12.24082 -1.35349 4.04433
-12.27461 -1.32335 4.06877
-12.26148 -1.26940 4.00533
-13.34533 4.02253 -0.87498
-13.58107 4.18660 1.82935
-13.23460 4.35371 -3.02216
-13.28168 4.33848 -2.97796
-11.45567 -3.07283 1.58718
-11.66672 -2.85307 2.53115
-13.61098 4.35469 1.16237
-12.57302 0.41742 3.27044
-12.63240 0.44624 3.33367
-12.58895 0.36497 3.26820
-12.63968 0.35751 3.30998
-12.62331 0.40453 3.30833
-12.55664 0.31957 3.23266
-12.52807 0.27298 3.20472
-12.57643 0.27364 3.25248
-12.60869 0.31671 3.28004
-13.56093 4.37075 0.95637
-13.58359 4.36832 0.88321
-12.25367 -0.79954 3.65373
-12.26298 -0.86895 3.70841
-13.43034 2.90782 4.13468
-13.21461 3.87981 -1.87399
-13.19336 4.09942 -2.46895
-12.95296 1.42553 3.93591
-12.49258 0.19261 3.18656
-12.54395 0.23154 3.22834
-12.09034 -1.76497 4.22362
-12.09560 -1.81838 4.25534
-11.56932 -3.13013 1.38573
-12.66512 0.47749 3.37851
-13.21137 3.90666 -2.07269
-11.97065 -2.00840 4.20268
-12.37211 -0.48333 3.70939
-12.40407 -0.40845 3.70181
-12.85069 0.69227 3.69407
-12.82699 0.73527 3.70998
-13.65677 4.34296 1.22435
-11.88323 -2.36223 3.90414
-11.85532 -2.42513 3.77781
-11.88827 -2.44543 3.75560
-12.42142 -0.33552 3.66250
-12.42526 -0.26848 3.60091
-13.24964 4.19843 -2.63945
-13.23890 4.16394 -2.57642
-13.63355 4.36170 0.99555
-13.59758 4.36339 1.06537
-13.58439 4.31867 1.42016
-13.62075 4.32469 1.36953
-13.52587 3.64951 3.11420
-13.52010 3.69808 3.01081
-13.57992 3.65531 3.08717
-13.61139 3.70600 2.96384
-13.20604 4.53351 -4.22599
-13.25119 4.53799 -4.33405
-13.16976 4.54560 -4.33338
-13.14336 4.55520 -4.40057
-13.28014 4.54868 -4.47895
-12.53265 0.11006 3.28535
-12.53596 0.15095 3.25791
-12.55285 0.18987 3.25377
-12.59382 0.18373 3.30030
-12.52282 0.06845 3.31290
-11.09993 -3.70075 -1.76878
-11.06180 -3.76384 -1.80622
-11.66574 -2.79265 2.70268
-11.70030 -2.82053 2.64312
-11.91382 -2.17672 4.10527
-13.49556 4.20432 -0.01081
-13.51874 4.22972 0.05722
-10.89945 -4.35573 -2.20186
-10.79731 -4.36224 -2.21751
-13.44449 3.02864 4.04870
-13.57652 4.15225 1.91173
-13.63983 4.16397 1.85816
-10.78891 -4.62077 -2.48253
-10.76530 -4.58717 -2.44194
-13.19468 4.52552 -4.11546
-13.01489 1.67513 3.94981
-12.99289 1.62509 3.94082
-13.05947 1.72754 3.96700
-13.00973 1.53817 3.94693
-13.06265 1.63859 3.96147
-12.87844 0.87363 3.83172
-12.84384 0.91913 3.82471
-12.86555 0.82871 3.80054
-13.56798 4.36330 0.68418
-13.56874 4.35506 0.58439
-13.26761 4.52544 -4.16321
-13.28464 4.50708 -3.94021
-13.63460 4.33539 1.29820
-12.16515 -1.36451 3.94560
-12.18675 -1.32707 3.93971
-13.19664 2.16868 4.14784
-13.25395 2.18607 4.17301
-11.42132 -2.89345 -0.22434
-11.42826 -2.87540 -0.29162
-11.47888 -2.87660 -0.26699
-11.47608 -2.89671 -0.19522
-13.60818 4.30516 1.46929
-13.63367 4.29004 1.51708
-11.44283 -3.20205 0.82117
-13.25550 3.93057 -1.33436
-13.23380 3.91078 -1.43109
-13.25701 4.05337 -2.39221
-13.24345 4.00721 -2.31402
-13.51324 4.24909 0.10433
-11.87064 -2.53191 3.52777
-13.36782 2.65343 4.23496
-11.98916 -2.04439 4.21833
-13.47432 3.22306 3.83746
-12.22270 -0.93493 3.66199
-13.65577 4.22746 1.69697
-11.95549 -2.44529 3.79430
-11.92901 -2.42051 3.83210
-13.28430 3.94890 -1.26296
-12.33478 -0.76880 3.81031
-12.27416 -0.91502 3.75925
-12.23867 -0.98955 3.73061
-12.28301 -0.96199 3.80860
-13.30064 2.37265 4.24021
-13.26091 2.32229 4.21868
-13.35507 2.45405 4.25889
-13.36571 2.40561 4.26088
-13.21956 3.93776 -2.17186
-13.19597 3.95429 -2.21986
-13.56088 3.92074 2.45256
-12.90079 1.08971 3.90542
-13.51193 4.29260 0.22861
-13.24803 2.25912 4.19727
-11.15909 -3.31436 -1.54622
-11.16132 -3.35039 -1.57398
-11.21689 -3.30687 -1.53384
-13.59626 3.60064 3.19745
-13.53779 3.60129 3.20929
-12.18762 -1.05839 3.67737
-12.19269 -1.13672 3.75847
-12.22811 -1.08822 3.78527
-11.36139 -2.92352 -1.06188
-11.35402 -2.89132 -0.94216
-13.32145 4.41074 -3.29837
-13.56196 3.97921 2.31827
-13.60740 4.08639 2.05034
-11.58191 -3.10082 1.50432
-11.47326 -2.94669 -0.05339
-11.92150 -2.22929 4.08205
-11.29233 -3.08552 -1.31288
-11.36044 -3.06847 -1.30620
-11.32647 -3.04448 -1.26608
-11.36314 -3.21032 -1.44750
-11.34769 -3.17693 -1.41902
-13.11197 2.00108 4.05006
-11.71502 -2.88037 2.46863
-13.55498 3.53679 3.32519
-13.30923 4.43934 -3.48240
-11.54537 -3.17109 1.19100
-11.52266 -3.16028 1.25575
-13.46798 3.07066 4.00759
-13.48302 3.10073 3.97514
-13.48466 3.03236 4.04128
-13.53516 3.05075 4.01624
-13.50128 3.29747 3.73590
-13.49518 3.33215 3.68462
-13.18130 2.03464 4.08354
-10.80080 -4.56559 -2.41526
-13.60771 3.88813 2.51131
-13.59875 3.84582 2.62188
-11.36276 -3.00445 -1.21649
-11.32216 -2.98659 -1.17203
-11.44633 -2.98813 -1.20991
-11.39366 -2.96489 -1.15970
-11.18148 -3.38779 -1.59556
-11.17056 -3.46235 -1.64020
-11.23373 -3.50803 -1.64944
-11.18183 -3.58539 -1.69665
-13.53839 3.78890 2.79336
-11.39681 -3.02938 -1.26171
-10.95665 -4.18824 -2.06117
-11.49518 -3.19874 0.97074
-11.10018 -3.64090 -1.74243
-11.32967 -3.10962 -1.34985
-12.18115 -1.40615 4.01043
-12.21168 -1.39482 4.04083
-13.24460 4.29177 -2.83894
-12.46387 -0.36392 3.75194
-12.47614 -0.30495 3.70913
-12.99886 1.45415 3.95040
-13.24601 3.88298 -1.83176
-10.77766 -4.73932 -2.65342
-13.24167 4.08807 -2.45039
-12.99171 1.20478 3.96642
-13.00537 1.25265 3.97201
-13.07639 1.27876 4.00141
-11.43368 -2.86131 -0.35820
-11.43481 -2.85185 -0.42104
-11.48033 -2.84804 -0.41228
-11.24743 -3.44136 -1.61321
-13.27716 3.98464 -2.26403
-13.03258 1.36593 3.97413
-13.28198 3.90662 -2.02587
-12.22696 -1.21439 3.89863
-12.22211 -1.29467 3.96368
-13.16892 1.96374 4.05149
-13.23777 2.08887 4.12618
-13.25169 2.02176 4.10147
-13.22370 1.97268 4.07180
-10.96580 -4.09065 -1.98951
-13.59736 4.36458 0.78943
-12.25865 -1.02874 3.80224
-12.88541 0.96648 3.86857
-12.91461 0.99622 3.89570
-11.04340 -4.10689 -1.98973
-12.42243 -0.47408 3.78751
-12.45438 -0.42287 3.79444
-12.34610 -0.65797 3.77330
-12.37637 -0.64124 3.82374
-12.38275 -0.53953 3.76828
-12.40665 -0.58050 3.84203
-12.42464 -0.52440 3.83310
-12.17969 -2.06533 4.34974
-12.11134 -2.10205 4.29580
-12.09117 -2.05315 4.29302
-12.05141 -2.07288 4.26138
-10.88257 -4.46603 -2.30762
-10.87400 -4.52692 -2.37107
-13.64403 4.25311 1.63248
-13.66360 4.27329 1.56164
-12.01368 -2.08767 4.23046
-12.01746 -2.20859 4.17885
-11.98652 -2.23252 4.13812
-12.03014 -2.25862 4.14764
-12.04912 -2.13114 4.24314
-12.07304 -2.17694 4.23755
-12.12387 -2.20911 4.24620
-12.06513 -2.23865 4.18800
-13.51606 3.24193 3.80759
-13.57401 3.28874 3.73420
-12.59005 0.13882 3.32565
-12.63301 0.17288 3.34693
-12.59312 0.08750 3.37299
-12.62300 0.12589 3.37064
-12.66855 0.15652 3.39339
-13.10795 1.62168 3.97618
-13.13462 1.71179 3.98708
-13.68696 4.19873 1.75506
-13.71284 4.16113 1.83078
-12.68958 0.38706 3.35596
-12.69988 0.42151 3.37649
-12.74019 0.54438 3.48924
-12.73160 0.59550 3.52395
-13.66008 3.91746 2.41866
-13.27752 4.51973 -4.08130
-11.94053 -2.36867 3.93644
-11.89784 -2.39790 3.85581
-11.98582 -2.38424 3.93909
-13.33320 4.39829 -3.22774
-11.88861 -2.78665 2.83012
-11.72145 -2.90766 2.37578
-11.48241 -3.19286 1.07338
-11.42548 -2.84879 -0.47654
-11.40490 -2.85202 -0.52589
-11.45491 -2.83959 -0.54386
-11.37892 -2.85928 -0.57107
-11.39873 -2.85125 -0.63761
-11.42906 -2.84343 -0.59627
-10.84067 -4.59732 -2.45156
-13.52956 3.36448 3.62727
-11.86939 -2.84423 2.65567
-11.77228 -2.86173 2.55637
-12.24628 -1.15220 3.87942
-12.27853 -1.08251 3.88675
-13.61789 3.79536 2.74600
-13.52748 3.18329 3.87628
-13.58320 3.19435 3.85167
-13.50867 3.14933 3.91850
-13.50976 4.15496 -0.11024
-13.49165 2.88407 4.14531
-13.49772 2.97807 4.08456
-13.48594 2.94840 4.10710
-11.90047 -2.47824 3.68730
-11.88856 -2.50965 3.60070
-11.87485 -2.59810 3.33549
-11.94925 -2.68289 3.14072
-11.97201 -2.49103 3.69513
-11.07454 -3.90635 -1.86226
-11.15358 -3.93232 -1.85871
-11.07439 -3.81625 -1.82318
-11.12474 -3.82713 -1.81428
-11.41746 -2.89913 -1.02456
-11.41322 -2.92824 -1.09453
-11.48757 -2.90200 -1.05480
-11.46845 -2.94298 -1.13805
-12.39007 -0.78007 3.93290
-12.41750 -0.75075 3.96932
-12.33317 -0.88096 3.86900
-13.30406 4.52762 -4.23708
-13.36519 4.52170 -4.18547
-12.30761 -0.99999 3.88851
-13.59767 3.41212 3.53318
-13.69137 3.40874 3.51917
-12.19736 -1.47148 4.09672
-12.23122 -1.44301 4.11176
-12.25631 -1.40535 4.11094
-13.60690 3.56170 3.26985
-13.32013 2.12549 4.17164
-11.00336 -4.77054 -2.69519
-10.95332 -4.80016 -2.74587
-13.63486 3.51782 3.34381
-11.93031 -2.27730 4.04974
-11.94111 -2.32032 4.00966
-11.96962 -2.29981 4.05890
-11.98324 -2.33924 4.01532
-11.84418 -2.82245 2.70838
-11.95356 -2.58379 3.43483
-13.65819 4.01183 2.20180
-12.53102 -0.01627 3.41892
-13.33317 4.10535 -2.47636
-12.56678 -0.04057 3.49328
-11.27807 -3.30834 -1.52777
-11.23881 -3.35009 -1.56157
-11.31556 -3.33681 -1.54163
-11.35604 -3.25518 -1.48245
-11.40780 -3.26958 -1.48719
-12.53194 -0.10492 3.53733
-11.54131 -3.10922 0.37409
-13.32787 4.51191 -3.99807
-13.38535 4.51184 -4.02117
-13.45840 2.84099 4.16896
-11.52777 -3.19032 0.80506
-13.40842 4.49686 -3.87369
-11.47256 -2.84096 -0.48161
-12.53098 -0.21060 3.67435
-11.58258 -3.18883 0.93495
-11.58540 -3.18750 0.99580
-11.57702 -3.18459 1.06008
-13.57014 4.26890 0.18785
-13.55020 4.30372 0.28636
-13.54482 4.31835 0.33674
-12.41281 -0.64989 3.89965
-11.64281 -3.01693 1.87311
-11.70688 -3.00309 1.97976
-13.66517 3.75640 2.82425
-12.43872 -0.62405 3.92995
-12.49912 -0.45586 3.89435
-12.46168 -0.50197 3.87891
-11.26096 -3.59348 -1.68239
-11.18393 -3.67112 -1.73337
-12.44820 -0.57138 3.91062
-12.21820 -1.51706 4.16374
-12.20405 -1.58078 4.20246
-12.16558 -1.65391 4.22149
-13.33510 4.05981 -2.39631
-13.37184 4.01430 -2.30545
-13.39988 4.03928 -2.35094
-13.36263 4.46802 -3.66755
-13.41844 4.02941 -0.86910
-13.41903 4.03671 -0.78563
-12.12782 -1.86487 4.30160
-12.17002 -1.75187 4.28665
-12.17548 -1.80334 4.31642
-11.56293 -3.17927 1.12522
-11.09999 -4.12190 -1.99285
-13.30553 3.96546 -2.21427
-11.53849 -2.90329 -0.16786
-11.53656 -2.88166 -0.24319
-11.60214 -2.88995 -0.22125
-11.48106 -2.86021 -0.33969
-11.53478 -2.86332 -0.32017
-11.53200 -2.84871 -0.39942
-11.58948 -2.85380 -0.38217
-11.59555 -2.87020 -0.30058
-13.46755 4.04779 -0.64117
-12.37145 -0.88184 3.95270
-12.42042 -0.90664 4.06555
-12.45434 -0.82153 4.07902
-12.43791 -0.70179 3.97680
-12.47312 -0.66212 4.01076
-12.48218 -0.78349 4.10422
-12.28898 -1.20750 4.00314
-13.47632 4.14224 -0.15022
-12.30331 -1.11714 3.96193
-12.32958 -1.15166 4.03528
-12.16725 -1.70118 4.25490
-1.90251 -1.42181 0.65236
-13.37439 3.90159 -1.79286
-13.35668 3.89992 -1.74870
-13.39258 3.90559 -1.86240
-13.58888 3.24500 3.78814
-12.96277 1.06696 3.93874
-12.96410 1.12289 3.94729
-12.57460 0.04331 3.39852
-13.29862 4.32273 -2.93085
-13.31304 4.30710 -2.88740
-13.31686 4.35651 -3.04235
-13.37467 4.33448 -2.96865
-12.59148 -0.10222 3.60738
-12.59612 -0.17899 3.71603
-11.97155 -2.73993 2.99694
-11.06358 -3.98889 -1.90855
-11.06276 -4.03644 -1.93822
-12.62263 0.01942 3.48040
-12.65219 0.07582 3.44772
-13.58079 3.33506 3.66478
-13.34972 4.24145 -2.73072
-13.32262 4.19738 -2.64135
-13.36244 4.21135 -2.66865
-13.30347 4.27333 -2.80105
-13.32415 4.25650 -2.76331
-12.63440 -0.02216 3.54792
-11.44250 -2.84286 -0.75384
-11.40556 -2.84952 -0.70461
-11.49680 -2.83354 -0.72752
-11.44441 -2.83960 -0.67423
-12.66560 0.05293 3.48702
-11.47976 -2.83372 -0.62521
-11.05970 -4.19075 -2.05141
-11.03581 -4.29127 -2.13502
-12.33327 -1.05774 3.98082
-12.34986 -0.98578 3.96917
-13.36316 4.36912 -3.09333
-13.31303 4.13777 -2.53299
-13.37961 4.15686 -2.56575
-12.54880 -0.27660 3.77672
-12.84217 0.58450 3.59843
-12.80089 0.56733 3.55495
-13.46010 2.65354 4.24093
-13.29414 3.93018 -2.11908
-13.32681 4.29118 -2.84591
-13.39008 4.31293 -2.90290
-13.42520 2.71627 4.22042
-13.47083 2.73346 4.21545
-11.59892 -3.17346 0.71239
-13.34632 3.94455 -1.35706
-13.33292 3.95736 -1.26687
-12.14548 -1.91173 4.32968
-12.16825 -1.95122 4.35449
-12.16697 -2.00499 4.35340
-11.73429 -2.95237 2.21039
-12.58935 0.22879 3.27561
-12.62646 0.27010 3.30042
-12.63540 0.22175 3.32380
-12.68244 0.26486 3.35253
-12.53891 -0.33593 3.82984
-12.51800 -0.39918 3.86667
-13.43460 2.59554 4.25293
-12.70131 0.34984 3.35809
-12.65886 0.31288 3.32384
-12.70511 0.31582 3.36160
-11.95813 -2.25532 4.09540
-11.99882 -2.27924 4.10484
-13.67038 4.35134 1.11728
-13.67886 4.34545 1.17386
-13.37720 2.49569 4.26051
-13.43555 2.47432 4.27093
-13.43446 2.52361 4.26467
-11.00803 -4.38956 -2.22401
-10.95531 -4.48984 -2.32738
-11.42293 -2.85365 -0.82639
-11.39231 -2.87045 -0.88917
-11.44595 -2.85938 -0.89415
-11.40781 -2.88013 -0.95490
-13.29856 3.91601 -1.48665
-13.36158 3.91306 -1.59603
-13.39428 3.93424 -1.47824
-12.74693 0.49424 3.45745
-12.73292 0.44176 3.41307
-12.81464 0.45981 3.49170
-13.35803 4.00299 -1.01743
-13.39393 3.96945 -1.25148
-13.40625 3.98985 -1.13505
-13.46184 3.98153 -1.22759
-13.39518 4.01277 -0.98625
-13.45389 4.01197 -1.02671
-13.50813 4.00416 -1.09949
-13.23865 4.13257 -2.52313
-13.71444 4.34855 1.05544
-13.67357 4.35667 0.90458
-13.41752 3.92111 -1.99776
-13.38546 3.90825 -1.92584
-12.67858 0.20712 3.37197
-11.47508 -2.84346 -0.82081
-13.42301 4.02128 -0.94707
-13.46528 4.02401 -0.94894
-13.10313 1.55560 3.97807
-13.15010 1.52817 3.99820
-13.31078 2.20760 4.19984
-13.67749 3.85228 2.56971
-13.70289 3.88376 2.47928
-13.32875 2.28738 4.23143
-13.36397 2.23219 4.22586
-12.46922 -0.54961 3.92868
-13.56477 4.20559 0.02110
-13.58137 4.14877 -0.09561
-12.49248 -0.53645 3.95317
-13.69741 4.30451 1.42350
-13.71891 4.31512 1.35517
-13.72060 4.29080 1.46844
-13.74626 4.27567 1.51020
-13.57470 4.12500 -0.15317
-13.40982 4.04637 -0.66006
-13.50809 4.03461 -0.84028
-13.07356 1.39468 3.98655
-13.70858 4.33029 1.26755
-13.75219 4.32925 1.22301
-12.16636 -1.85516 4.32989
-12.18081 -1.89957 4.35497
-12.20337 -1.85027 4.35604
-13.61991 4.33811 0.51581
-13.63102 4.34333 0.56977
-13.57569 4.33440 0.44075
-13.63377 4.31682 0.41052
-13.65281 4.32309 0.46446
-13.37530 2.36214 4.26015
-13.36548 2.33319 4.25321
-12.02290 -2.45187 3.81494
-11.25702 -3.39721 -1.58711
-13.48272 4.05544 -0.53787
-13.52707 4.06326 -0.43979
-13.66577 4.09874 1.99552
-11.57442 -3.14376 1.32686
-11.61622 -3.15787 1.25264
-13.41161 3.99486 -2.25479
-13.32851 3.94940 -2.16443
-13.39968 3.97310 -2.20455
-12.38043 -1.03034 4.05696
-11.73644 -2.86082 -0.91033
-11.68136 -2.85408 -0.91454
-11.69551 -2.84414 -0.85341
-11.78747 -2.86834 -0.89625
-11.74295 -2.85148 -0.84882
-11.70896 -2.84030 -0.80567
-13.58955 4.23924 0.11675
-11.66105 -3.03878 1.78548
-13.56844 4.32246 0.37310
-12.96792 1.16842 3.95360
-13.15899 1.46834 4.00899
-11.66866 -3.17447 1.11384
-11.65643 -3.16722 1.18440
-12.25798 -1.45967 4.15983
-13.41653 2.30515 4.26129
-13.45564 2.32983 4.27488
-13.45661 2.37209 4.27882
-12.95636 1.00983 3.92426
-11.64838 -3.09446 1.54563
-11.46627 -2.87422 -0.96914
-13.64248 3.59664 3.19141
-13.64301 3.65542 3.06516
-13.67486 3.61145 3.14806
-13.72603 3.62663 3.09400
-13.78495 4.07123 1.99657
-13.82413 4.02235 2.08776
-13.76191 4.02478 2.11862
-13.72930 4.07942 2.00798
-13.64559 3.46635 3.43258
-12.26361 -1.50463 4.20277
-12.26696 -1.54866 4.23952
-13.53573 4.09571 -0.25488
-13.51501 4.07073 -0.38600
-13.54329 4.08218 -0.30711
-13.58410 4.07008 -0.34916
-13.35596 3.90423 -1.67629
-13.46540 3.93119 -1.58379
-12.24111 -2.51019 3.78683
-12.13690 -2.52002 3.70874
-12.15774 -2.46831 3.84520
-12.91740 0.92320 3.87668
-12.95295 0.88314 3.88495
-12.23100 -1.75041 4.33261
-12.24996 -1.67219 4.30521
-12.31461 -1.71295 4.37117
-12.31547 -1.65316 4.34389
-12.26916 -1.59592 4.27412
-13.64129 4.34749 0.62364
-13.64749 4.35291 0.70040
-13.48330 2.77251 4.19950
-13.36337 3.92650 -2.06722
-11.07328 -4.33378 -2.16814
-12.57294 -0.38638 3.92947
-12.54453 -0.44497 3.94768
-12.59254 -0.44350 4.01085
-13.72018 4.33198 0.61448
-13.71220 4.34345 0.72327
-12.21382 -1.89317 4.37698
-12.19883 -1.93525 4.37577
-12.22434 -1.92505 4.39097
-13.62935 4.25399 0.18137
-12.81131 0.08114 3.59913
-12.73173 0.05433 3.55362
-12.76353 0.09093 3.54356
-12.72627 0.10563 3.49316
-12.37113 -1.09373 4.07579
-12.72697 0.23744 3.40132
-12.71637 0.18578 3.41937
-12.76545 0.21378 3.44703
-13.40217 4.38169 -3.14742
-13.42279 4.39961 -3.24074
-11.02214 -4.51607 -2.35221
-13.53871 4.05005 -0.57934
-13.56700 2.92777 4.11031
-13.55810 2.89890 4.12966
-12.03835 -2.58886 3.47718
-13.38457 4.27336 -2.80057
-13.42459 4.29411 -2.84949
-12.90742 0.78922 3.80771
-12.90101 0.74622 3.77344
-12.94633 0.71386 3.77893
-12.48749 -0.59928 3.99131
-11.54619 -2.95421 -0.01961
-11.54119 -2.92772 -0.09339
-11.61502 -2.93711 -0.06446
-11.60863 -2.91251 -0.14263
-12.53767 -0.49178 3.98000
-12.53282 -0.56186 4.02964
-12.34399 -1.40732 4.22283
-12.34544 -1.45262 4.25393
-12.30444 -1.45466 4.20967
-12.36186 -1.36187 4.21610
-12.30580 -1.40818 4.17707
-13.68702 4.35221 0.80414
-11.63263 -3.15157 0.58182
-11.62608 -3.16349 0.65559
-12.23419 -1.80300 4.35845
-12.85553 0.52854 3.56594
-12.81189 0.51191 3.52238
-12.87036 0.46379 3.53703
-12.88439 0.60197 3.64136
-12.73770 0.40185 3.39847
-12.85359 0.41207 3.50175
-12.67567 0.12196 3.42785
-11.58186 -3.12156 0.42904
-11.61328 -3.13166 0.47860
-13.63144 4.15130 -0.06849
-13.67667 4.11819 -0.12453
-13.66135 4.10555 -0.16428
-11.84429 -3.02896 1.95211
-11.78613 -3.04916 1.81596
-12.66126 -0.07355 3.64859
-11.74294 -3.11102 1.50348
-11.64942 -3.12034 1.43769
-11.68529 -3.13422 1.38137
-11.61411 -3.06187 0.26726
-11.58157 -3.02288 0.16062
-11.67227 -3.02835 0.19430
-11.63925 -2.98931 0.08628
-11.81750 -2.88955 2.48537
-11.79961 -2.92398 2.35392
-10.89243 -4.62854 -2.49045
-10.91850 -4.66260 -2.53609
-10.90222 -4.71118 -2.60544
-13.59590 3.14584 3.90494
-13.64343 3.10106 3.94075
-13.57250 3.11378 3.94524
-13.55262 3.08178 3.98254
-12.31256 -1.59757 4.31190
-12.35238 -1.54800 4.31834
-12.30965 -1.54688 4.27867
-13.71406 4.24582 1.62094
-13.74763 4.22657 1.65613
-11.55582 -2.98177 0.05321
-11.62426 -2.96295 0.01206
-12.02451 -2.54098 3.59658
-13.75513 4.34329 0.89222
-13.74206 4.34615 0.96913
-13.04356 1.05503 3.97852
-13.01738 1.00996 3.95738
-12.70929 -0.00310 3.60361
-12.69191 0.02384 3.55045
-13.68745 3.70002 2.94756
-10.90104 -4.76029 -2.68123
-12.30685 -1.49989 4.24455
-13.58426 2.71422 4.21732
-13.54027 2.71538 4.22074
-13.53175 2.78132 4.19320
-13.79242 4.31078 1.30848
-13.50798 2.68994 4.23108
-11.75284 -3.06295 1.72462
-11.69035 -3.06637 1.67699
-13.53291 2.85552 4.15652
-13.60339 2.82198 4.16370
-13.58155 2.78416 4.18658
-12.19495 -1.97932 4.37573
-12.20418 -2.02249 4.37666
-12.22063 -1.99370 4.39153
-11.11233 -4.20437 -2.05604
-12.65188 -0.13887 3.72829
-12.62670 -0.23887 3.83213
-12.62275 -0.28350 3.88284
-12.66990 -0.19947 3.83397
-12.37149 -1.17321 4.12142
-12.40157 -1.16641 4.16783
-12.41464 -1.08402 4.14926
-13.58396 4.10723 -0.19604
-12.15731 -2.13730 4.30970
-12.18543 -2.17812 4.30097
-13.32218 2.04357 4.13891
-13.27615 1.97665 4.09266
-13.24938 1.92803 4.06518
-13.31216 1.95128 4.09871
-12.51944 -0.66574 4.08621
-12.55567 -0.64561 4.12640
-12.52195 -0.76673 4.15793
-11.63797 -2.83802 -0.53561
-11.57450 -2.83178 -0.57059
-11.58315 -2.84106 -0.46859
-11.69964 -2.84764 -0.51211
-11.64420 -2.84844 -0.44800
-12.22126 -1.95958 4.39258
-12.30716 -1.26917 4.07760
-12.31118 -1.31441 4.11580
-12.34979 -1.25696 4.13511
-12.36242 -1.31553 4.18860
-11.52530 -2.83833 -0.48114
-11.50801 -2.83309 -0.55857
-13.48869 2.57635 4.25932
-13.53564 2.60869 4.25264
-13.58480 2.50596 4.27387
-13.49260 2.50054 4.27268
-13.62136 4.29433 0.30519
-13.65376 4.29854 0.35016
-13.62745 4.27494 0.24376
-13.74149 3.55537 3.23722
-13.69364 3.53501 3.29584
-13.79085 4.18960 1.72484
-13.78732 4.15454 1.80730
-13.48450 4.47565 -3.72279
-13.46176 2.41375 4.27944
-11.53602 -2.82889 -0.65065
-12.01258 -2.32011 4.06428
-12.02860 -2.35623 4.01775
-12.05963 -2.33879 4.06531
-12.09397 -2.36476 4.03923
-12.03434 -2.39853 3.93992
-12.08467 -2.41076 3.94148
-11.17959 -3.82058 -1.79799
-11.30915 -3.69567 -1.71589
-11.27065 -3.77470 -1.75836
-11.24855 -3.83158 -1.78892
-11.44710 -3.05401 -1.30057
-11.48850 -3.01328 -1.25252
-12.29164 -1.79195 4.38869
-12.23941 -1.85251 4.38017
-12.26025 -1.87999 4.39975
-12.34844 -1.79471 4.41958
-11.39452 -3.09336 -1.33926
-11.45989 -3.11007 -1.35789
-11.47859 -3.07472 -1.32388
-13.42293 4.52927 -4.39650
-11.54076 -3.02973 -1.27460
-12.04407 -2.30147 4.10952
-11.53116 -2.83754 -0.82227
-11.56032 -2.82937 -0.74620
-11.56216 -2.84909 -0.90503
-11.58866 -2.83596 -0.83329
-11.61635 -2.82987 -0.76721
-13.72211 3.97988 2.24573
-13.78120 3.94497 2.29669
-13.77031 3.90816 2.38770
-12.44706 -0.94249 4.13451
-12.48199 -0.89954 4.17150
-12.46408 -1.00823 4.19763
-11.59518 -2.82774 -0.67818
-13.79467 4.28674 0.44388
-13.19947 1.81512 4.01981
-13.25007 1.82908 4.04018
-13.22379 1.87453 4.04068
-13.55308 4.03628 -0.80479
-13.56569 4.04010 -0.72853
-11.36948 -3.13377 -1.37896
-12.96367 0.93432 3.90897
-13.73578 3.78296 2.72346
-13.75380 3.84689 2.54589
-13.65237 3.02406 4.01190
-13.62427 3.05473 3.99180
-11.50256 -2.85250 -0.89920
-11.53123 -2.87005 -0.97786
-13.45885 4.51109 -4.06036
-11.37097 -3.34515 -1.53841
-11.46137 -3.29449 -1.49525
-11.42435 -3.35094 -1.53282
-11.48239 -3.20470 -1.43300
-11.51157 -3.22988 -1.44615
-13.46240 3.99449 -1.14275
-13.45426 2.23462 4.25453
-13.45185 2.18098 4.23909
-12.92525 0.64197 3.70238
-13.50530 2.34119 4.28506
-12.74363 0.32982 3.39185
-12.73632 0.28701 3.39234
-12.77735 0.31014 3.42268
-13.75774 3.69510 2.92672
-11.34298 -3.41128 -1.57898
-11.36948 -3.46659 -1.60132
-13.82729 3.57375 3.15764
-13.47841 4.40753 -3.29043
-11.67568 -3.07391 0.31755
-11.70164 -3.09298 0.38129
-13.62956 3.27142 3.74346
-12.71865 -0.10398 3.75393
-12.73781 -0.02895 3.66824
-12.76931 -0.05663 3.73889
-12.78954 -0.10408 3.83032
-13.43859 4.54331 -4.56069
-13.41171 4.53468 -4.45256
-11.67584 -3.18052 0.94544
-11.68353 -3.17845 1.04325
-11.88726 -2.74316 2.94207
-13.45199 4.55324 -4.65815
-13.31925 1.88006 4.08146
-13.33850 1.82878 4.08065
-13.29614 1.83283 4.06049
-13.27360 1.88155 4.06120
-13.46167 3.95154 -1.43040
-12.60653 -0.32996 3.91471
-12.62655 -0.38507 3.99877
-12.65986 -0.33022 3.98382
-11.83909 -2.99809 2.08057
-11.20367 -3.96410 -1.86798
-11.26665 -3.91328 -1.82816
-11.28611 -3.98986 -1.87216
-11.31236 -3.94762 -1.84186
-13.51121 4.01747 -1.00878
-11.44110 -3.14813 -1.39219
-13.72317 3.48530 3.37982
-13.18256 1.75246 4.00536
-13.17749 1.68996 3.99991
-13.21270 1.72524 4.01337
-13.22893 1.77399 4.02368
-12.60140 -0.58894 4.14876
-12.56618 -0.52321 4.04519
-12.62769 -0.49876 4.10791
-11.18044 -3.88476 -1.82851
-13.76604 3.74192 2.81192
-13.64721 4.21090 0.07720
-13.57932 4.05668 -0.46915
-10.94777 -4.56379 -2.40985
-10.97711 -4.59929 -2.45264
-12.51671 -0.87325 4.21303
-12.57712 -0.79694 4.25995
-13.50381 4.02935 -0.90977
-12.33821 -1.20851 4.08668
-12.34842 -1.49889 4.28601
-11.19224 -4.00596 -1.89610
-11.18390 -4.04626 -1.92464
-11.66677 -3.14506 1.32377
-13.42302 4.08091 -2.42706
-13.43188 4.17191 -2.59041
-13.54535 4.13977 -2.52032
-13.51946 4.18411 -2.60449
-11.35057 -3.55249 -1.64528
-11.72194 -3.08924 1.59095
-13.44453 1.97416 4.17540
-13.37357 1.88962 4.11224
-13.38628 1.97829 4.14545
-13.16769 1.42422 4.01898
-13.23895 1.48132 4.04042
-13.47712 4.33754 -2.97101
-13.47192 4.31223 -2.89353
-13.11707 1.31477 4.01520
-13.17850 1.31104 4.04134
-11.21675 -4.10843 -1.96594
-13.10106 1.20354 4.01579
-13.11423 1.13911 4.02057
-12.75036 0.16192 3.46745
-12.43736 -1.11515 4.20307
-12.39893 -1.23215 4.19550
-12.42842 -1.22405 4.23619
-12.44205 -1.16751 4.23318
-13.39793 4.35113 -3.02362
-13.41702 4.24886 -2.74296
-13.46693 4.28574 -2.82345
-12.78621 0.01432 3.65712
-13.42656 4.22043 -2.68377
10.23494 -4.25694 -3.23849
-13.73459 3.43698 3.46233
-11.54435 -2.92627 -1.11871
-11.52518 -2.96402 -1.18348
-11.59727 -2.95244 -1.16906
-11.58035 -2.98774 -1.22165
-12.99886 0.76622 3.85198
-13.04056 0.73964 3.85652
-12.94236 0.83635 3.85760
-12.99087 0.84659 3.89246
-12.98229 0.80220 3.86438
-13.03002 0.81385 3.89861
-13.08021 1.09852 4.00154
-13.77560 4.33765 0.83503
-13.75991 4.33455 0.73051
-12.55610 -0.74052 4.19347
-12.58766 -0.71575 4.22362
-12.36756 -1.66569 4.38653
-12.35802 -1.60165 4.35101
-11.62403 -3.18323 0.87776
-11.66061 -3.17624 0.81554
-11.68263 -3.13620 0.53148
-13.00954 0.94957 3.93926
-13.00021 0.89537 3.91744
-13.04729 0.90911 3.94736
-13.08282 0.96968 3.98161
13.40659 -1.66144 -1.65520
-11.63179 -3.17485 0.76236
-13.17841 1.62439 4.00161
-13.23275 1.60370 4.02518
-13.24736 1.54098 4.03691
-13.73127 3.38027 3.55504
-13.65707 3.33004 3.65305
-12.39477 -1.27478 4.21094
-13.26029 4.58730 -4.76513
-13.45723 4.56379 -4.74527
-13.35110 4.57878 -4.77212
-12.13915 -2.25733 4.21063
-12.07889 -2.28335 4.15150
-12.15370 -2.29852 4.16911
-12.22633 -2.27254 4.23024
-12.19978 -2.22531 4.27001
-13.24437 1.67310 4.02606
-13.76187 4.33618 1.13295
-12.70488 -0.48396 4.19658
-12.66645 -0.44050 4.10417
-12.71412 -0.38203 4.10466
-13.51655 4.46326 -3.64420
-13.81766 4.31757 1.21473
-12.77402 0.35108 3.41775
-12.80999 0.33778 3.44940
-13.49779 4.05957 -2.37859
-12.14743 -2.38175 4.03139
-12.09408 -2.32230 4.10879
-12.16885 -2.33568 4.12133
-12.22398 -2.10800 4.35922
-12.22599 -2.15671 4.33492
-12.26751 -2.13720 4.36478
-13.49137 3.92360 -1.70048
-13.82083 4.29439 1.37269
-13.79627 4.28976 1.41870
-13.70963 4.32256 0.53125
-12.05099 -2.70508 3.14549
-12.04944 -2.67454 3.23644
-11.66370 -2.88001 -0.28374
-11.65293 -2.86250 -0.36479
-11.72199 -2.87361 -0.35243
-11.70916 -2.85894 -0.43156
-11.77161 -3.15292 0.68670
-12.12318 -2.43848 3.89853
-12.17235 -2.42280 3.95705
-12.19832 -2.45533 3.89583
-13.76885 4.25673 1.55971
-13.53162 4.42681 -3.41707
-12.42559 -1.65113 4.42270
-12.40624 -1.60127 4.38981
-12.47515 -1.64124 4.45742
-12.45479 -1.59538 4.42762
-12.44008 -1.54740 4.39726
-12.83827 0.12721 3.57678
-12.83590 0.16587 3.54147
-12.78337 0.13886 3.51625
-12.80197 0.19028 3.49373
-11.63975 -2.83172 -0.62641
-11.65065 -2.83023 -0.71288
-11.69509 -2.83615 -0.67384
-11.69450 -2.83995 -0.59371
-12.71483 -0.16708 3.84195
-12.76100 -0.13966 3.85375
-13.69639 3.30738 3.67552
-13.80042 4.22001 1.64374
-13.45646 3.96647 -1.32192
-13.52527 3.96222 -1.41564
-13.53773 3.97919 -1.29569
-13.74870 4.30594 0.48482
-13.50979 2.43505 4.28303
-13.51786 2.37573 4.28732
-13.75064 4.20478 0.12772
-13.71061 4.23783 0.19195
-12.10614 -2.58315 3.53504
-13.62603 4.08558 -0.24586
-13.72928 4.06813 -0.24956
-13.64067 4.07256 -0.29408
-12.38471 -1.45224 4.29650
-12.42317 -1.45227 4.33802
-12.38929 -1.49928 4.32687
-13.86494 3.96646 2.19579
-13.91970 3.98193 2.12165
-13.87445 4.04600 2.00064
-13.65275 3.22046 3.80236
-13.66899 3.18841 3.83634
-13.84006 4.14919 1.78914
-13.37487 1.77194 4.09278
-13.29540 1.78137 4.05265
-13.35607 1.72720 4.07970
-13.27243 1.72825 4.03852
-12.33244 -1.91562 4.43538
-12.28061 -1.95783 4.41882
-12.27875 -1.91128 4.41419
-12.36539 -1.83507 4.43738
-13.44782 3.95882 -2.14498
-13.45851 3.94613 -2.09338
-13.46490 3.93611 -2.04300
-13.46612 3.97644 -2.19188
-13.75334 3.21495 3.77729
-13.73968 3.27296 3.70979
-13.34384 1.92252 4.10537
-12.64646 -0.80669 4.36042
-12.61337 -0.87531 4.35317
-12.59211 -0.84045 4.30603
-13.79210 4.30916 0.55955
-13.79758 4.31759 0.63365
-13.84545 4.28715 0.50596
-12.25834 -2.30999 4.19212
-12.22718 -2.35660 4.10734
-13.68628 3.15744 3.86674
-13.70454 3.12687 3.89432
-13.74462 3.34098 3.61231
-13.79490 3.36821 3.55489
-13.53169 3.99210 -1.19637
-13.60018 3.99998 -1.16114
-12.04059 -2.63974 3.33498
-12.96933 0.67889 3.76314
-13.50180 4.27590 -2.79492
-13.51733 4.32251 -2.91677
-13.55841 4.30664 -2.86315
-13.86118 3.90443 2.34586
-13.80672 3.84451 2.52340
-13.85783 3.86958 2.43194
-12.49654 -0.98221 4.23794
-12.54155 -0.90635 4.26872
-12.47838 -1.07833 4.25286
-12.52076 -1.01098 4.28822
-13.77646 3.15606 3.83590
-13.50475 4.38969 -3.18401
-13.58611 4.40174 -3.24976
-13.47087 4.37458 -3.11275
-11.59865 -2.86768 -0.97997
-11.57037 -2.89332 -1.04952
-11.64336 -2.89221 -1.04652
-11.61923 -2.91989 -1.11000
-11.91500 -2.89878 2.49384
-13.01576 0.69386 3.80404
-13.55630 3.93793 -1.64660
-13.57454 3.94904 -1.56844
-12.82576 0.05299 3.64582
-13.46522 3.92519 -1.97138
-13.50634 3.92851 -1.94286
-13.14403 1.04704 4.02482
-13.12004 0.92385 3.98720
-13.16173 0.97401 4.01822
-13.19789 1.03770 4.04595
-13.47896 4.35599 -3.03623
-13.57307 2.64334 4.24207
-13.64733 2.59903 4.24811
-13.61285 2.65826 4.23398
-11.64407 -2.83849 -0.84549
-11.62257 -2.84960 -0.91107
-11.70073 -2.83646 -0.74774
-11.66762 -2.83405 -0.78880
-13.61731 2.55655 4.26152
-12.17677 -2.56208 3.62793
-11.14373 -4.25260 -2.09215
-12.91252 0.49505 3.58142
-12.95070 0.52091 3.62007
-12.89646 0.55005 3.60822
-11.13174 -4.40968 -2.23365
-13.52900 3.92702 -1.74575
-12.73433 -0.21511 3.93458
-12.69240 -0.23959 3.91727
-12.68968 -0.28270 3.96714
-12.51383 -1.09902 4.31461
-12.77418 0.26375 3.43181
-12.81589 0.29137 3.46005
-12.81322 0.24166 3.47484
-12.85729 0.27151 3.50160
-12.85113 0.32296 3.48625
-12.20390 -2.40044 4.01679
-12.24887 -1.93885 4.40498
-12.24786 -1.97984 4.40558
-12.24171 -2.01955 4.39773
-12.23080 -2.06092 4.38096
-12.27428 -2.04781 4.40429
-12.27913 -2.00324 4.41550
-12.03537 -2.75463 2.99391
-12.61567 -0.76409 4.29498
-12.45954 -1.22228 4.28137
-12.42671 -1.32025 4.27769
-12.41582 -1.38505 4.29603
-12.38143 -1.40703 4.26696
-12.85214 0.21847 3.52056
-11.08667 -4.46576 -2.29374
-11.06347 -4.57430 -2.41951
-11.03348 -4.62068 -2.48001
-11.09708 -4.52990 -2.36411
-11.18987 -4.54628 -2.37885
-13.56749 2.44930 4.28387
-12.79002 -0.39720 4.21313
-12.77076 -0.33646 4.12289
-12.74510 -0.43804 4.20205
-13.58631 4.02715 -0.92203
-13.60406 4.03098 -0.86083
-13.62242 4.03568 -0.74927
-13.61701 2.88985 4.12296
-13.63685 2.94768 4.07879
-13.65439 2.89847 4.10731
-11.48220 -3.36189 -1.52749
-11.43345 -3.53422 -1.61915
-11.53974 -3.38003 -1.52312
-13.55232 4.01161 -1.05599
-13.56482 4.02133 -0.98118
-13.62566 4.01584 -1.01640
-13.62288 4.00747 -1.09811
-12.60432 -0.66408 4.21091
-11.25329 -4.06879 -1.93128
-11.24728 -4.13651 -1.98451
-11.03602 -4.67104 -2.54889
-11.01902 -4.71768 -2.61526
-12.64819 -0.62567 4.24292
-12.63620 -0.69849 4.27992
-11.68549 -2.92385 -0.11794
-11.67647 -2.90079 -0.20215
-11.76629 -2.91438 -0.18497
-11.73922 -2.89160 -0.27314
13.57160 -1.69320 -2.24069
-13.48991 4.25490 -2.74900
-13.51123 4.22901 -2.69185
-11.95485 -2.85785 2.65323
-11.94937 -2.87332 2.59775
-12.35501 -1.73613 4.40476
-13.48995 4.53555 -4.52707
-13.40347 2.14987 4.21219
-11.84369 -3.11009 1.54728
-13.46572 3.91606 -1.83281
-12.73374 -0.26026 3.99198
-12.82494 -0.29743 4.13943
-11.86478 -2.97786 2.17514
-13.54700 4.52038 -4.37402
-13.81995 4.27055 1.47837
-13.85906 4.29771 1.30248
-13.90376 4.27754 1.36096
-13.88297 4.27424 1.40357
-12.93713 0.57107 3.64940
-13.00459 0.57874 3.69452
-12.98956 0.54434 3.65853
-13.60510 4.04499 -0.60081
-13.40984 2.06576 4.18707
-13.43604 2.02825 4.18702
-13.38079 2.10442 4.18768
-11.71254 -3.15543 1.26904
-11.78131 -3.14727 1.33243
-11.78026 -3.13359 1.40884
-13.49782 4.49716 -3.90419
-13.81496 4.32203 0.72940
-11.35034 -3.82074 -1.76566
-11.37790 -3.75761 -1.73016
-11.85656 -3.12879 1.46062
-13.61660 4.05060 -0.50810
-13.65628 4.05691 -0.39165
-13.67403 4.04881 -0.45873
-13.65561 2.74142 4.19485
-13.65977 2.81107 4.15779
-13.68950 2.84008 4.13303
-12.26902 -2.09251 4.38670
-12.39580 -1.54897 4.35789
-12.63321 -0.54322 4.15481
-13.49732 2.26476 4.27234
-13.51307 2.30413 4.28199
-13.86650 3.63350 3.00661
-13.80235 3.66078 2.98168
-13.90216 4.09834 1.86471
-12.23571 -2.20158 4.30752
-12.25509 -2.24178 4.27782
-12.28395 -2.21750 4.31369
-12.27203 -2.17966 4.33994
-11.48232 -3.17028 -1.40722
-13.69482 4.04018 -0.55130
-13.82151 3.79157 2.65452
-13.81233 3.97130 2.21714
-12.02246 -2.82036 2.80691
-12.00740 -2.79950 2.85820
-13.62003 2.72864 4.20656
-13.50631 4.48633 -3.80216
-12.49444 -1.25793 4.34395
-12.54736 -1.16291 4.38442
-13.70940 4.15708 -0.01616
-13.76916 4.17211 0.05586
-12.45318 -1.27928 4.29536
-11.28255 -3.86960 -1.80188
-13.00311 0.49660 3.63288
-13.05204 0.47498 3.64548
-13.04081 0.52056 3.66838
-13.04772 0.59970 3.73579
-13.78160 3.31953 3.63248
-12.96797 0.46989 3.59954
-12.93442 0.43870 3.56733
-12.98795 0.41961 3.59076
-11.27395 -4.02919 -1.90044
-11.70465 -2.97246 0.04282
-11.69210 -2.94789 -0.03512
-11.80662 -2.96511 0.01161
-13.70925 4.25998 0.25972
-13.18984 1.22473 4.05401
-13.19298 1.27426 4.05162
-13.32541 1.45730 4.08267
-13.28108 1.36550 4.07553
-13.72012 4.12350 -0.08935
-12.84850 -0.16323 3.98721
-12.80004 -0.19285 3.97771
-13.67693 4.08841 -0.20666
-13.77916 4.06938 -0.20711
-13.75628 4.08527 -0.16937
-13.79592 4.08932 -0.13260
-12.40358 -1.71052 4.42582
-12.43629 -1.75140 4.45598
-12.45280 -1.69584 4.45416
-12.90563 0.03217 3.74683
-12.98369 0.02961 3.82454
-12.92966 -0.01013 3.82992
-12.86206 -0.00420 3.75497
-12.82927 -0.07546 3.82819
-11.91906 -3.06168 1.84817
-13.56980 4.51109 -4.17825
-13.56936 4.51658 -4.31506
-13.33685 1.67649 4.06942
-13.30785 1.59248 4.05958
-13.36228 1.62747 4.08434
-13.63247 3.98923 -1.26955
-13.69050 3.99585 -1.21822
-13.71318 3.05403 3.96470
-13.73884 3.02371 3.98299
-13.72410 3.09650 3.91917
-13.77771 3.07634 3.91867
-13.68214 2.99256 4.02946
-13.71343 2.96015 4.04441
-13.69986 2.92662 4.07383
-12.55619 -0.99178 4.33062
-12.58245 -1.02591 4.38039
-11.56783 -3.08881 -1.33278
-11.55052 -3.12218 -1.36268
-13.76839 4.25904 0.30819
-13.85158 4.21314 1.62851
-13.83845 4.24313 1.55478
-13.88508 4.23602 1.53946
-13.58388 4.41365 -3.33301
-13.39492 1.81066 4.10901
-13.39947 1.85516 4.11973
-13.94573 3.20270 3.70478
-13.87743 3.21857 3.72225
-13.90877 3.25313 3.66687
-13.91373 3.18151 3.74507
-12.67391 -0.57670 4.23845
-13.83099 4.32453 0.82904
-13.84038 3.71721 2.83120
-13.91971 3.68922 2.85084
-13.03824 0.85895 3.92436
-13.78930 3.42984 3.45618
-13.78191 3.48305 3.36248
-12.70381 -0.52960 4.23743
-13.20660 1.12219 4.05991
-13.25562 1.10872 4.07762
-13.17509 1.15966 4.04832
-13.23508 1.19596 4.07346
-12.46627 -1.47446 4.39381
-12.43016 -1.49914 4.36727
-12.49490 -1.42769 4.40690
-12.47773 -1.34126 4.35311
-12.51047 -1.33986 4.39398
-12.53284 -1.42470 4.44904
-12.56650 -1.35578 4.46840
-12.45068 -1.38494 4.33801
-11.90870 -2.93413 2.36161
-11.72522 -3.17815 0.98879
-11.78923 -3.17598 1.04013
-11.76437 -3.16924 1.16204
-11.77386 -3.17373 1.10144
-13.89229 4.17323 1.69883
-13.91475 4.13245 1.77866
-13.10889 0.87584 3.96630
-12.65560 -0.75425 4.34165
-12.01634 -2.83849 2.74904
-13.80907 4.33270 0.91945
-13.79881 4.33447 1.02531
-13.86553 4.31967 0.99826
-13.87146 4.31777 0.94067
-13.80074 4.26867 0.37533
-13.01847 0.44966 3.61632
-13.82712 4.32418 1.11615
-11.77535 -3.16279 1.22355
-12.56461 -1.22801 4.42862
-12.53283 -1.29660 4.40822
-12.58482 -0.93080 4.34234
-11.75112 -3.14761 0.63650
-11.77186 -3.13611 0.58131
-13.85911 4.32004 1.05414
-13.57244 4.35227 -3.00611
-13.56389 4.33217 -2.93824
-11.66485 -2.87022 -0.98046
-11.72438 -2.99731 0.11741
-11.82479 -2.98672 0.08667
-11.82430 -3.01685 0.18325
-11.76375 -3.03418 0.22649
-11.43480 -3.66928 -1.67879
-12.68548 -0.63533 4.29919
-12.68971 -0.71145 4.35667
-12.71766 -0.62834 4.33387
-11.78742 -2.85796 -0.56598
-11.77921 -2.85257 -0.63888
-11.95320 -2.98638 0.06802
-11.86758 -2.94080 -0.11120
-11.79795 -2.94426 -0.06811
-11.93714 -2.96998 -0.00169
-13.47377 2.05916 4.21362
-13.49374 2.10143 4.23285
-13.51605 2.01013 4.22051
-13.51801 2.14420 4.25179
-11.64705 -2.98222 -1.21236
-11.62851 -3.01647 -1.25617
-11.72286 -3.01814 -1.25075
-13.86561 4.30731 1.20789
-13.52057 2.20049 4.26471
-13.89245 4.25565 1.46862
-12.10383 -2.75417 3.03575
-12.90030 -0.06949 3.89330
-13.56299 4.37362 -3.09683
-11.91368 -3.14432 1.39473
-13.55388 4.08911 -2.42771
-11.58404 -3.05466 -1.29951
-12.31313 -2.07464 4.40944
-12.30992 -2.11869 4.39017
-12.35329 -2.10013 4.41151
-12.34949 -2.14128 4.39048
-12.31003 -2.15974 4.36744
-12.36768 -2.16953 4.37809
-13.65092 2.67296 4.22433
-13.68598 2.68595 4.21321
-13.82656 3.40585 3.48199
-13.86234 3.37959 3.50903
-13.84307 3.33190 3.59138
-12.31708 -1.98002 4.43054
-12.35478 -1.95244 4.44379
-12.35811 -2.00420 4.43991
-12.31638 -2.02826 4.42343
-12.81003 -0.24165 4.05428
-13.54027 4.03956 -2.33057
2.05979 1.47060 -4.16782
2.04498 1.39274 -4.19811
-12.90476 0.11082 3.65347
-11.77400 -2.85033 -0.71017
-11.77094 -2.85135 -0.77770
-13.89187 4.30709 1.13549
-13.93285 4.28445 1.25656
-13.90229 4.28755 1.29972
-12.76838 -0.49413 4.28526
-13.66089 4.39245 -3.17574
-13.69824 4.40355 -3.24709
-13.57899 4.38989 -3.17649
-12.35016 -2.44482 3.97956
-12.28737 -2.37702 4.09068
-13.32014 1.32886 4.09608
-13.53960 3.96395 -2.12086
-13.56464 3.95185 -2.05219
-13.60437 3.96670 -2.09944
-11.48673 -3.85193 -1.75961
-11.45360 -3.81221 -1.74360
-11.56262 -3.80905 -1.71867
-13.55832 3.98722 -2.19276
-13.59500 3.98113 -2.15883
-11.81715 -2.86587 -0.82402
-13.61620 4.19644 -2.61081
-13.07669 0.82606 3.92935
-13.14623 0.84183 3.96880
-13.11442 0.79715 3.93215
-13.06925 0.78510 3.90305
-13.10731 0.76023 3.90564
-12.63070 -0.95469 4.41227
-12.66223 -0.85204 4.40388
-12.66779 -0.93408 4.44806
-13.93305 4.25951 1.40764
-12.39077 -1.76864 4.43461
-12.42357 -1.80397 4.45932
-12.39877 -1.85808 4.45593
-11.67629 -3.08619 -1.32000
-11.60314 -3.13086 -1.36394
-11.78769 -2.88258 -0.96100
-11.72974 -2.87670 -0.97663
-11.79542 -2.90822 -1.03706
-13.08188 0.71707 3.86018
-13.06395 0.65142 3.79140
-13.12266 0.69871 3.86389
-13.11709 0.61151 3.78101
-12.61530 -1.11955 4.45769
-12.63326 -1.03753 4.44941
-13.55878 3.94221 -1.99716
-13.56563 3.93124 -1.79788
-13.60484 3.93721 -1.85632
-11.78773 -3.16487 0.79633
-11.73553 -3.17535 0.89327
-13.57565 2.10306 4.26287
-13.56713 2.05300 4.25115
-13.56952 1.99348 4.24107
-13.92517 3.84132 2.45984
-13.86787 3.83348 2.51662
-11.82323 -3.15600 1.28534
-13.28512 1.26213 4.08894
-13.32795 1.23210 4.10632
-11.48864 -3.52880 -1.60344
-11.50596 -3.65804 -1.65691
-11.71438 -3.05281 -1.28735
-13.56653 2.33564 4.29092
-13.55737 2.29090 4.28678
-13.56624 2.23487 4.28125
-13.58602 2.15902 4.27457
-13.62198 2.20957 4.28899
-13.60772 2.27673 4.29201
-12.74129 -0.55144 4.30369
-13.83328 3.11424 3.85571
-13.81656 3.01963 3.95459
-13.85552 3.05745 3.90114
-13.56240 3.93399 -1.90761
-13.92199 3.46370 3.32850
-13.87231 3.46412 3.35585
-13.88333 3.52258 3.23318
-13.76570 2.99419 3.99782
-13.79333 2.96686 4.00838
-12.18883 -2.67173 3.35176
-14.01451 3.98062 -0.63187
-13.95450 3.99444 -0.61632
-14.03166 3.97577 -0.74671
-13.92363 3.99904 -0.68282
-12.32746 -2.25077 4.29461
-12.31288 -2.27530 4.25958
-11.61765 -3.20183 -1.41060
-11.64283 -3.15248 -1.37429
-13.41231 1.67967 4.10990
-13.45805 1.61791 4.13725
-13.41788 1.55416 4.11823
-13.61248 1.84977 4.23601
-13.57558 1.91092 4.22808
-13.61712 1.92993 4.24916
-13.80729 3.51967 3.27912
-12.69388 -0.77766 4.40218
-12.72203 -0.70705 4.39190
-13.44828 1.84907 4.14816
-13.43909 1.90379 4.15409
-11.69276 -2.92193 -1.10616
-11.66880 -2.95027 -1.16234
-11.74072 -2.95594 -1.16069
-11.71563 -2.89763 -1.04378
-11.76776 -2.93110 -1.10508
-11.98117 -3.04023 1.98266
-12.33714 -2.62508 3.56914
-12.19230 -2.60742 3.52674
-12.27658 -2.58835 3.62105
-12.01637 -3.06077 1.91292
-13.48231 1.97798 4.19610
-13.53261 1.92631 4.21037
-13.49290 1.89333 4.18282
-13.79606 4.21518 0.19161
-13.85168 4.21794 0.24682
-11.53644 -3.29335 -1.47991
-11.87124 -3.07757 1.72715
-11.90279 -3.10078 1.62532
-11.36532 -3.90150 -1.80711
-11.38317 -3.85925 -1.78063
-11.89409 -3.15087 1.34267
-13.92275 3.90046 2.31532
-11.81726 -3.16809 0.84674
-11.84693 -3.17064 0.89212
-11.82066 -3.17466 0.95034
-13.66873 3.96496 -1.52271
-13.60603 3.98328 -1.31022
-13.70973 3.97227 -1.47948
-13.72617 2.51434 4.26207
-11.75719 -3.16146 0.74428
-13.90134 3.75046 2.71241
-13.82188 3.26887 3.68647
-13.81302 3.30228 3.64595
-13.90127 4.20622 1.60932
-13.93692 4.18647 1.63051
-13.69454 4.05800 -0.33978
-13.74509 4.05710 -0.29352
-11.52905 -3.60346 -1.62601
-12.61155 -1.20098 4.48044
-13.18149 0.88860 4.00121
-13.19574 0.93144 4.02065
-13.21795 0.85558 4.00109
-13.23108 0.89570 4.02141
-13.24672 0.93598 4.03995
-13.68337 4.03482 -0.66460
-13.69627 4.02860 -0.77095
-13.17142 0.77600 3.94379
-13.15947 0.80768 3.95713
-13.20561 0.81694 3.97868
-13.88938 4.26270 0.44752
-13.88949 4.28045 0.53595
-13.57838 4.49602 -3.93645
-13.64593 4.49777 -4.01996
-13.64191 4.50453 -4.12438
-11.73106 -3.12169 0.49255
-11.72097 -3.10865 0.43941
-13.64895 4.33973 -2.94305
-13.68545 4.35195 -2.97713
-13.63117 4.36361 -3.03793
-13.42979 1.73109 4.12139
-13.48679 1.76849 4.16054
-13.45631 1.79556 4.14471
-13.90898 4.23997 0.37774
-11.48389 -3.72361 -1.69303
-11.47011 -3.76793 -1.71763
-13.74631 4.04141 -0.44168
-13.77667 4.03222 -0.51270
-13.69860 4.02233 -0.88887
-11.74862 -2.98794 -1.20966
-11.60565 -3.24374 -1.43784
-13.69216 4.01687 -0.97499
-12.52226 -1.51924 4.46665
-12.48490 -1.54356 4.43737
-13.57454 4.54448 -4.68599
-13.61350 4.54980 -4.76961
-13.83026 3.21330 3.74928
-13.50623 4.56359 -4.78495
-13.58880 4.27475 -2.77674
-13.60656 4.29884 -2.83198
-13.22627 0.99366 4.04811
-13.27920 1.06983 4.08035
-13.28015 0.99453 4.06604
-11.43487 -3.99194 -1.85606
-11.45435 -4.05864 -1.90257
-11.44848 -3.93472 -1.81620
-13.92521 4.18260 0.20405
-13.89085 4.16312 0.12135
-11.20750 -4.34543 -2.16756
-13.62554 4.26148 -2.73855
-13.91203 3.56467 3.12860
-13.87071 4.29920 0.63578
-13.89603 4.29917 0.71787
-13.86045 4.29653 0.58808
-11.90186 -3.17364 1.10834
-11.91312 -3.16564 1.22306
-11.90289 -3.17133 1.15118
-13.72415 4.00645 -1.09323
-13.57667 4.48765 -3.84055
-12.46931 -1.79422 4.48175
-12.45167 -1.84588 4.47800
-12.50781 -1.84609 4.50558
-13.82823 3.46071 3.38436
-13.87081 3.42028 3.43642
-11.79812 -3.06829 0.33373
-11.87547 -3.05271 0.30174
-11.20910 -4.45060 -2.26888
-11.21560 -4.50791 -2.33117
-12.02722 -2.90600 2.51089
-13.98085 4.09820 1.80854
-13.70149 2.73286 4.18880
-13.72881 2.75973 4.16719
-13.57578 4.47280 -3.71583
-13.72014 4.00001 -1.16867
-12.39135 -1.92141 4.45651
-12.43737 -1.94070 4.47147
-12.42484 -1.88722 4.46869
-12.39891 -1.97540 4.45552
-11.12804 -4.63911 -2.50483
-11.11329 -4.69620 -2.58683
-11.19695 -4.57774 -2.41889
-11.19348 -4.60886 -2.46110
-13.65807 4.12191 -2.46981
-13.69744 4.41271 -3.32701
-13.57582 4.02145 -2.28198
-13.60809 4.06516 -2.37206
-13.93650 4.22496 1.52621
-13.97518 4.20332 1.55064
-13.95734 4.24554 1.43248
-13.99040 4.21848 1.48738
-13.62553 4.42874 -3.44073
-13.63610 4.44720 -3.56194
-12.35754 -2.05417 4.42872
-13.92187 4.30291 0.91334
-13.95362 4.29405 1.06357
-13.93145 4.30163 0.99634
-13.58189 4.52532 -4.48435
-13.68831 4.20600 -2.61356
-13.73682 4.19042 -2.57380
-13.60673 4.23570 -2.68886
-12.26255 -2.43770 3.96161
-13.71796 2.87022 4.10519
-13.77167 2.86002 4.09172
-13.78840 2.93360 4.03517
-12.31547 -2.19648 4.34307
-12.29348 -2.55124 3.71695
-12.79229 -0.53201 4.34546
-12.15125 -2.72778 3.14638
-12.23652 -2.69835 3.30493
-13.78834 4.24428 -2.65856
-13.70485 4.23453 -2.66327
-13.76972 4.04297 -0.37991
-11.29678 -4.09560 -1.94710
-12.30799 -2.47142 3.90704
-13.93206 3.63431 2.96636
-12.73462 -0.78701 4.45327
-12.72084 -0.85735 4.47373
-13.91934 4.30053 0.84416
-12.91208 -0.17793 4.07763
-12.91543 -0.13646 4.01841
-12.96277 -0.14928 4.08816
-12.89448 -0.21762 4.11409
-12.87821 -0.26080 4.15252
-12.31255 -2.33298 4.17456
-12.36462 -2.30252 4.23704
-11.84088 -3.08132 0.38795
-11.84362 -3.09867 0.45007
-13.56635 2.38062 4.29045
-12.88887 0.19196 3.56909
-12.94964 0.22238 3.60027
-12.90074 0.24936 3.54676
-12.91586 0.15730 3.61939
-11.84792 -3.17544 1.01322
-11.94375 -3.17398 1.01186
-13.59858 3.93971 -1.69659
-13.64085 3.94246 -1.74945
-12.10564 -2.79004 2.93484
-14.05746 4.15191 1.60143
-13.98713 4.17968 1.60185
-14.04016 4.19229 1.50938
-12.83858 -0.36203 4.22957
-12.89048 -0.33429 4.25387
-11.36624 -4.33459 -2.14782
-11.38800 -4.27179 -2.08900
-11.27278 -4.28118 -2.10539
-12.04949 -2.88983 2.58178
-13.95172 4.02187 2.00445
-14.01878 3.98693 2.03581
-13.85460 3.17403 3.78210
-13.66495 3.95175 -1.65068
-13.75962 3.98805 -1.31385
-13.70499 3.98609 -1.33245
-13.70446 4.42502 -3.42967
-11.56756 -3.48134 -1.56115
-12.31144 -2.51565 3.80871
-13.94732 4.27172 1.32151
-13.96476 4.25950 1.36128
-12.80642 -0.45989 4.29662
-12.84671 -0.42901 4.31060
-13.80703 4.10656 -0.07999
-13.84476 4.10791 -0.05257
-11.07649 -4.79228 -2.73264
-11.15925 -4.74444 -2.66072
-11.18059 -4.78367 -2.72356
-13.72256 2.63583 4.22489
-13.70219 2.60022 4.24030
-13.75651 2.69158 4.19379
-13.73989 2.66675 4.20932
-13.65944 2.43209 4.28591
-13.62177 2.37934 4.29245
-12.75213 -0.61790 4.36648
-12.77274 -0.68466 4.43380
-12.80776 -0.63747 4.44008
-13.95456 4.24831 0.47384
-12.81627 -0.58009 4.40845
-13.69860 2.47485 4.27545
-13.36488 1.40545 4.10670
-12.08738 -2.85805 2.71718
-13.65437 4.04782 -2.32557
-13.66562 4.07947 -2.38899
-12.25657 -2.66196 3.42797
-11.81316 -2.87777 -0.42111
-11.76476 -2.85986 -0.49709
-11.86666 -2.88089 -0.48745
-12.08044 -2.83122 2.80240
-13.27768 1.17259 4.08978
-13.31329 1.15289 4.10128
-12.73713 -0.92983 4.52383
-12.70004 -0.96218 4.49682
-12.60843 -1.41087 4.53348
-12.58955 -1.45999 4.52317
-12.67184 -1.16049 4.54020
-12.70468 -1.08834 4.55182
-12.76970 -1.10635 4.62974
-12.80502 -1.00197 4.62509
-12.78817 -0.89644 4.56284
-12.80015 -0.80567 4.53187
-13.65596 4.32559 -2.89510
-12.64269 -1.27987 4.54218
-13.66443 4.48265 -3.84583
-13.67957 4.48885 -3.93049
-12.69490 -1.33377 4.61926
-12.66855 -1.38240 4.59904
-12.55719 -1.81384 4.53564
-12.51669 -1.77981 4.50879
-12.59721 -1.78454 4.56437
-12.55993 -1.75889 4.53738
-12.52773 -1.72474 4.51161
-12.95189 0.07458 3.73585
-12.99935 0.12210 3.72329
-12.15355 -2.84218 2.80041
-12.56612 -1.51038 4.50952
-12.62836 -1.52291 4.57798
-12.77806 -0.73171 4.46837
-12.96996 0.16933 3.65423
-13.41869 1.49015 4.12341
-12.49983 -1.68457 4.48546
-12.48291 -1.73849 4.48244
-12.65698 -1.47522 4.60304
-13.75838 3.96516 -1.59130
-13.67554 3.95746 -1.60159
-13.77267 3.96108 -1.66590
-12.88670 -0.40284 4.32608
-12.92329 -0.36242 4.31946
-12.95563 -0.28557 4.26199
-12.99569 -0.30009 4.31614
-13.76240 3.97498 -1.47158
-12.98279 -0.11244 4.05155
-12.99682 -0.04555 3.95562
-11.28244 -4.19644 -2.03104
-13.83120 4.02874 -0.43216
-13.77235 4.02681 -0.61395
-13.85830 4.01601 -0.55691
-13.80551 3.99746 -1.15559
-13.78716 4.01340 -0.91312
-13.82580 4.51371 -4.49756
-13.73217 4.50674 -4.25562
-12.12040 -2.90908 2.53547
-12.86508 -0.49615 4.39187
-12.88960 -0.45715 4.38132
